47.0171 0.0000 -66.4469
17.9270 12.3125 -12.5590
52.9272 12.3125 -41.2890
0.0000 24.9955 -38.4826
68.8397 0.0000 -74.3045
36.1508 0.8962 0.0000
52.4033 21.8226 -76.3750
3.6762 0.0000 -73.8680
0.0000 7.6560 -28.7449
36.1250 30.1644 -49.3255
22.3064 2.5326 -76.3750
35.8879 0.0000 -59.8829
10.2551 0.0000 -17.0609
72.2500 0.6156 -4.0600
3.6292 46.1966 -72.6428
22.2630 0.0000 -34.0966
57.8010 19.4370 -60.6358
61.7078 12.3125 -44.1183
37.4893 28.4850 -76.3750
60.0713 13.0189 -76.3750
0.0000 23.9357 -65.8006
59.4975 18.6005 -53.1262
36.1250 23.0327 -32.4226
32.7017 0.0000 -67.8510
44.2681 23.9985 -76.3750
29.2972 0.0000 -74.8478
38.8496 28.2491 -38.1875
67.3507 12.3125 -21.6813
36.1250 27.0031 -58.0619
40.7663 12.3125 -65.7420
21.1830 38.1334 -55.3563
35.5399 12.3125 -0.1675
0.0000 17.1680 -34.2248
20.6404 44.2076 -68.3787
14.1824 0.0000 -42.4753
36.1250 13.0495 -37.4788
0.0000 26.1433 -75.1248
21.1094 0.0000 -60.5556
70.9577 4.9377 0.0000
64.0219 13.2476 -76.3750
41.9844 0.0000 -50.6941
0.0000 0.8305 -26.6628
0.0000 30.1089 -65.1481
0.0000 20.7418 -26.9027
29.1303 7.2182 -76.3750
47.3803 12.3125 -43.0822
36.1250 14.5641 -32.9745
13.4361 0.0000 -63.7615
40.4100 12.3125 -45.7552
44.3673 0.0000 -58.0154
64.9925 12.3125 -25.7124
14.2851 0.0000 -16.3317
72.2500 1.3177 -71.1422
14.5074 43.7825 -67.4673
19.0714 0.0000 -53.3955
60.1178 18.2946 -56.8871
70.5753 13.1383 -67.5337
3.7648 0.0000 -42.3195
27.2680 0.0000 -29.8328
55.0417 14.1502 -38.1875
36.1250 17.6402 -48.1534
22.4086 12.3125 -3.7687
61.2655 1.5687 -76.3750
60.5182 18.0972 -45.8583
39.8565 0.0000 -53.8132
53.4910 21.5622 -56.4827
4.3123 0.0000 -16.8470
0.0000 12.9682 -27.9073
61.5896 12.3125 -33.4234
30.7531 0.0000 -32.8681
35.4258 12.3125 -21.1221
44.1278 15.5799 -38.1875
0.0000 32.3847 -73.3540
0.0000 19.4091 -43.9058
5.2803 0.0000 -59.7203
40.5656 12.3125 -57.6333
47.1424 0.0000 -76.3347
60.3875 18.1616 -40.6414
68.8751 12.3125 -10.5295
39.2329 19.6361 -76.3750
65.6875 12.3125 -44.6120
0.0000 18.4528 -75.3266
72.2500 11.1420 -70.6791
38.8502 0.0000 -69.5326
0.0000 20.9676 -38.4242
0.0000 12.7429 -69.4239
36.1250 43.4753 -76.2596
8.7941 46.6520 -73.6192
25.7024 39.4160 -76.3750
33.9801 42.1519 -63.9715
50.2661 0.0000 -69.3072
0.0000 16.6079 -21.6173
68.6236 14.1006 -58.7259
0.0000 13.0457 -54.8960
0.0000 10.0643 -7.5929
24.4462 0.0000 -47.7731
0.0000 37.1650 -68.7463
36.1250 32.5170 -56.7725
55.6918 12.3125 -24.9333
47.8958 12.3125 -47.1808
1.8099 0.0000 -19.5447
44.3006 3.5907 0.0000
2.2317 0.0000 -66.0930
0.0000 15.1758 -48.2693
0.0000 30.6421 -40.0607
24.0321 12.3125 -22.1042
50.8517 12.3125 -53.7058
58.3130 12.3125 -51.6611
27.2156 3.1489 -76.3750
58.1048 12.3125 -30.8021
40.2624 12.3125 -41.6971
27.8350 44.4743 -68.9503
14.4800 0.0000 -29.4718
57.8575 16.5776 -76.3750
45.0629 16.8239 -76.3750
8.2437 0.0000 -66.0348
0.0000 3.6850 -4.7820
21.0425 46.0367 -72.3000
0.0000 36.1629 -60.7223
0.0000 15.9140 -62.2797
39.2706 3.4787 0.0000
19.1443 43.4242 -76.3750
32.7950 12.3125 -29.5921
72.2500 5.7990 -75.4226
56.8740 12.3125 -18.9907
36.1250 30.4157 -45.7661
12.1842 44.9229 -69.9122
3.7205 0.0000 -23.7702
72.2500 4.1517 -55.1237
72.1265 12.3734 -38.3561
32.9054 12.3125 -16.1993
72.2500 7.6895 -62.9217
32.2527 0.0000 -63.8032
36.1250 20.8396 -37.3949
0.0000 24.0935 -55.9964
22.2925 1.4798 0.0000
9.9947 0.0000 -70.6506
57.6727 12.3125 -44.4940
27.3011 0.0000 -42.5262
0.0678 0.0000 -55.1348
64.5115 12.3125 -14.8450
14.1880 1.1476 0.0000
72.2500 0.4069 -27.4720
58.0743 0.7129 0.0000
21.6108 6.2429 -76.3750
52.6204 15.8510 -76.3750
0.0000 25.9651 -42.0241
10.6610 12.3125 -9.4527
15.3080 0.0000 -23.0429
36.1250 17.1090 -41.8582
62.6773 0.0000 -72.9414
40.0848 16.2885 -76.3750
0.0000 26.6887 -68.1072
71.1494 12.8552 -64.1599
40.5002 22.8236 -76.3750
44.2532 26.1172 -40.5876
16.5398 0.0000 -36.5509
56.4420 0.0000 -72.4623
17.8633 0.0000 -48.8052
28.4482 40.2259 -59.8424
7.7006 44.6642 -76.3750
33.2045 38.0221 -76.3750
9.2559 0.0000 -62.7798
59.4405 0.0000 -67.3791
49.5126 21.4776 -38.1875
36.1250 35.1345 -52.6970
53.9700 12.3125 -35.5429
22.7276 37.6932 -76.3750
71.4509 12.7065 -52.2737
0.5400 0.0000 -72.0521
34.6749 12.3125 -8.4532
54.3763 0.0000 -63.2540
5.3929 0.0000 -30.4998
36.1250 26.6720 -49.9021
10.1860 0.0000 -45.8941
50.7362 7.3481 0.0000
19.4944 12.3125 -5.4540
21.0845 12.3125 -9.9915
9.2208 5.6899 -76.3750
72.2500 0.9504 -13.0458
46.5840 12.3125 -59.6314
32.8524 46.4144 -73.1097
0.0000 13.8564 -35.0762
0.0000 31.6326 -55.7019
32.9240 38.6457 -56.4547
0.0000 1.7483 -34.6705
50.0423 0.0000 -61.2911
29.8433 0.0000 -36.1751
66.0678 15.3608 -40.4638
9.6438 12.3125 -4.0432
69.2400 12.3125 -27.9767
24.5887 0.0000 -52.0375
65.9882 12.3125 -18.3619
0.0000 8.0117 -10.2992
31.7766 34.8114 -48.2344
36.1250 18.9230 -26.3678
0.0000 4.8163 -26.0186
36.1250 19.8973 -33.8421
28.6251 12.3125 -25.3379
53.8956 5.1060 0.0000
25.2370 12.3125 -14.3824
65.8290 7.5394 0.0000
0.0000 30.1050 -47.0119
59.0592 15.1517 -38.1875
56.2041 20.2244 -47.0097
66.3437 12.3125 -8.1928
35.4248 39.7596 -58.8427
2.6880 0.0000 -39.1298
10.5521 46.9661 -76.3750
10.1329 2.3978 -76.3750
15.6577 9.5928 -76.3750
49.6853 12.3125 -28.4063
2.3837 0.0000 -48.6068
0.0000 9.9993 -0.0020
41.2421 0.0000 -44.2829
36.1250 28.6252 -63.3858
26.6381 37.4453 -53.8812
39.9612 12.3125 -60.8371
56.3607 20.1472 -40.2509
69.9137 13.4645 -72.8900
44.4379 0.0000 -73.4455
0.0000 3.6683 -16.2348
41.5299 12.3125 -51.1898
34.1311 4.9817 -76.3750
36.4957 12.3125 -75.8274
26.9312 46.5962 -73.4995
0.0000 12.6369 -23.6573
72.2500 5.9165 -44.4255
46.8756 12.3125 -52.0299
0.0000 29.3733 -59.6523
34.4768 47.8404 -76.1668
43.9543 22.5275 -38.1875
36.5205 12.3125 -51.4077
53.7853 17.1127 -38.1875
25.2138 0.0000 -36.5455
61.5004 12.3125 -13.4539
36.1250 28.8109 -42.4939
3.2989 47.7300 -75.9301
66.3053 15.2437 -53.3048
29.1723 1.2411 0.0000
0.0000 17.0471 -59.1094
0.0000 17.0163 -17.6055
16.3482 3.1246 -76.3750
64.4647 16.1513 -62.6194
23.7414 46.8617 -74.0686
68.9861 7.9729 0.0000
61.0343 12.3125 -24.2712
1.2770 0.0000 -13.5249
0.0000 6.2279 -37.6110
52.5678 0.0000 -56.2679
47.0768 0.0000 -70.7612
66.6196 15.0887 -66.8445
35.5020 0.0000 -43.7624
36.1250 15.5614 -21.4226
35.6194 12.3125 -25.7871
64.0326 3.0446 0.0000
26.1480 0.0000 -72.6071
30.0712 0.0000 -49.3764
72.2500 7.5048 -72.7817
22.3691 42.2400 -64.1605
0.0000 8.1528 -20.9127
72.2500 7.1043 -47.3266
0.0000 31.3589 -50.1529
36.5581 12.3125 -44.4109
8.9100 0.0000 -13.1467
36.1250 34.9628 -60.8169
36.1250 37.7009 -71.9902
65.3058 12.9413 -38.1875
49.3149 23.6213 -46.6792
62.7467 16.9984 -58.6692
15.3361 12.3125 -10.6504
31.6627 12.3125 -12.4315
0.0000 22.2954 -31.4555
36.1250 33.4823 -67.9516
52.3087 12.3125 -48.0698
35.9261 45.3759 -70.8833
69.3210 12.3125 -36.8192
0.0000 36.0866 -51.5953
66.7261 15.0362 -45.7137
0.0000 42.4347 -73.9492
25.4862 0.0000 -27.2801
5.5339 5.8099 -76.3750
44.2705 12.3125 -31.7070
72.2500 3.5815 -67.7698
71.8495 12.5100 -45.8595
56.9279 0.0000 -61.4962
0.0000 25.2045 -34.9315
36.1250 26.4059 -38.3850
50.8785 22.8504 -40.6012
8.4654 0.0000 -58.6303
46.8010 12.3125 -63.4449
15.3436 0.0000 -59.2052
0.0000 32.4886 -44.4418
27.9965 0.0000 -61.6970
57.1171 0.0000 -69.4087
0.0000 15.7996 -41.0706
72.2500 9.0816 -59.2942
0.0000 21.1327 -67.0850
71.5184 12.6732 -56.9428
0.0000 18.6642 -23.9112
6.7531 0.0000 -73.9187
43.2895 12.3125 -36.9955
9.3210 44.3661 -68.7183
22.0596 44.3876 -76.3750
71.3209 12.7706 -42.4036
36.1250 16.0598 -14.3401
72.2500 3.0040 -40.3256
54.8897 0.0000 -66.2701
46.9548 16.8702 -38.1875
2.7328 0.0018 0.0000
0.0000 43.8180 -71.1881
2.8215 0.0000 -45.2869
45.9182 19.9112 -76.3750
0.0000 35.7558 -57.1620
2.4148 0.0000 -60.8294
42.6646 0.0000 -62.2640
26.8684 38.8069 -56.8004
36.1250 24.1729 -44.4894
20.4410 0.0000 -30.2022
22.7212 12.3125 -0.2805
72.2500 3.3914 -50.8470
20.6740 0.0000 -41.9970
35.0888 12.3125 -4.8595
30.4080 36.6521 -52.1808
37.9133 24.9224 -76.3750
35.3256 0.0000 -47.9813
14.2220 42.2675 -64.2192
0.0000 15.3686 -75.6326
22.6134 0.0000 -73.9944
42.5502 26.9569 -44.8651
41.1503 18.6902 -38.1875
72.2500 8.3466 -52.6652
30.6555 41.5868 -62.7601
72.2500 6.7919 -67.7854
72.2500 2.2686 -59.1060
36.1250 18.3255 -39.0038
43.6518 12.3125 -46.2504
21.3783 0.0000 -47.1781
36.1250 29.4762 -73.2580
10.9557 0.0000 -39.6430
36.1250 24.3004 -48.0109
0.0000 12.9513 -43.0557
50.3532 12.3125 -39.3377
46.5631 24.9782 -46.3533
36.1250 32.9673 -50.2890
6.0132 10.9197 -76.3750
0.0000 2.4879 -19.4309
47.4417 0.0000 -55.6498
0.0000 4.6546 -22.7765
10.0164 0.0000 -33.3803
36.1250 28.8168 -53.2385
52.2852 18.7795 -76.3750
60.5801 12.3125 -41.4071
52.5054 0.0000 -72.5148
16.9985 0.0000 -43.2990
3.1528 0.0000 -9.2487
49.3109 0.8382 0.0000
0.0000 12.5020 -73.3315
44.4297 0.0000 -64.9893
3.1836 0.0000 -69.5989
0.0000 16.1976 -55.4172
31.5732 0.0000 -72.1252
36.2449 0.5618 -76.3750
66.2759 12.3125 -12.5325
32.9053 37.3281 -53.6300
40.8750 0.0000 -72.3062
0.0000 22.3736 -62.3830
25.6168 0.0000 -40.0483
36.1250 15.2268 -39.3933
0.0000 39.3169 -62.5825
39.5437 0.0000 -56.6922
59.8426 3.0040 0.0000
19.8199 0.0000 -38.1850
38.5127 0.0000 -63.0934
0.0000 17.9262 -27.5545
36.6301 0.0000 -38.8549
0.0000 38.0466 -72.9019
50.5987 4.1659 0.0000
0.0000 6.9642 -31.8092
40.3054 2.5401 -76.3750
33.3658 0.0000 -58.4987
64.0333 16.3640 -48.0864
0.0316 6.8837 -76.3750
29.9140 12.3125 -2.5642
0.0000 20.3591 -71.0142
0.0000 15.6824 -12.0874
36.1250 26.6064 -60.8958
7.9260 0.0000 -27.5925
46.9067 24.8087 -41.8684
20.7034 12.3125 -18.4507
16.9601 0.0000 -65.0619
45.9186 0.0000 -52.3807
62.8723 16.9365 -41.8327
52.4594 22.0708 -51.3832
0.0000 2.8833 -50.8554
30.0982 43.7077 -76.3750
2.4649 1.6741 -76.3750
60.3170 0.0000 -64.4506
53.6943 12.3125 -31.3529
26.6262 0.0000 -67.8219
17.8018 40.9574 -61.4106
0.0000 7.3345 -14.1332
34.9619 35.0921 -48.8363
7.2443 0.0000 -52.1476
0.0000 18.6721 -65.7126
27.3272 43.2243 -66.2707
52.3844 12.8537 -76.3750
31.0988 12.3125 -22.3777
19.5960 3.2852 -76.3750
28.7725 12.3125 -18.5465
72.2500 4.0820 -32.4789
31.1379 44.4031 -68.7978
6.1205 0.0000 -48.9297
15.8103 0.0000 -25.9285
19.8822 0.0000 -26.0510
36.1250 23.5440 -56.2975
25.1037 0.0000 -54.7858
19.9025 0.0000 -58.0382
31.4488 12.3125 -5.3888
50.2173 12.3125 -42.1248
36.1250 26.1204 -34.0725
36.1250 19.0555 -44.1923
2.0283 0.0000 -29.5619
33.3758 33.8198 -46.1085
62.5677 12.3125 -27.0902
33.3521 40.7982 -76.3750
36.1250 22.1620 -29.7827
0.0000 29.3335 -53.3158
6.8718 0.0000 -43.4969
64.4441 12.3125 -32.7874
17.6154 0.0000 -72.4920
72.0499 12.2252 0.0000
65.8701 12.3125 -28.4590
17.0610 44.2296 -68.4258
69.5112 12.3125 -33.1653
36.1250 19.0811 -23.4593
36.1250 19.2565 -19.0995
31.2654 0.0000 -38.8935
26.8498 12.3125 -8.6496
52.2445 12.3125 -25.2579
13.0963 0.0000 -73.4943
12.3289 0.0000 -50.0347
0.0000 26.6391 -59.8320
0.0000 27.3236 -46.6330
12.8709 45.5110 -76.3750
36.1250 15.6301 -27.2045
45.4170 6.1976 0.0000
13.6486 0.0000 -35.6602
32.1161 33.5886 -76.3750
14.5618 0.0000 -68.4894
26.6118 0.0000 -49.4323
0.0000 18.9782 -36.5635
21.1132 0.0000 -68.7778
51.0018 15.0627 -38.1875
66.8356 14.9822 -56.8709
17.0373 46.8122 -73.9625
5.4131 12.3125 -3.4822
39.0850 12.9247 -76.3750
30.5144 0.0000 -41.5023
11.1008 7.6481 -76.3750
29.7158 0.0000 -44.8519
68.9804 12.3125 -18.9810
36.1250 17.2459 -32.5649
11.7715 0.0000 -29.3302
52.7952 12.5465 -38.1875
48.7158 0.0000 -51.6066
0.0000 9.9943 -2.8957
25.1134 12.3125 -3.8403
44.3412 4.6930 -76.3750
49.3343 21.2608 -76.3750
0.0000 40.0969 -68.7449
25.1383 0.0000 -32.1188
19.2908 0.0000 -63.6251
7.9757 0.0000 -40.7968
48.7706 23.8897 -51.0056
39.4327 24.0966 -38.1875
36.1250 38.5087 -64.5854
0.0000 14.5874 -7.0691
72.0526 12.3125 -14.9033
60.1006 12.3125 -18.4593
6.8030 0.0000 -15.8683
36.1250 42.7396 -68.0744
0.0000 2.2061 -61.4574
14.8782 12.3125 -7.6043
36.1250 35.0518 -55.3661
36.1250 39.2339 -68.8306
29.8995 0.0000 -58.0580
36.1250 25.4474 -28.3471
0.0000 22.5787 -48.8003
36.1250 14.9021 -9.5004
62.6536 0.0000 -70.2776
34.7751 12.3125 -31.3705
56.2343 12.3125 -27.5487
51.4657 12.3125 -58.8667
0.0000 19.5217 -20.8586
68.4496 14.1864 -49.3887
72.2500 2.9979 -19.6111
36.1250 23.1047 -38.7845
14.9043 6.5469 -76.3750
72.2500 1.3489 -63.9624
36.1250 31.6468 -42.3740
33.0880 2.4061 -76.3750
0.0000 41.2044 -64.4391
38.3438 5.6368 -76.3750
20.0248 0.0000 -35.5054
36.1250 43.7772 -73.0693
0.0000 18.9572 -54.3697
5.0325 0.2943 -76.3750
72.2500 10.1504 -63.8790
52.2988 0.0000 -67.3415
68.8091 1.2957 0.0000
67.2874 12.3125 -24.3190
65.9015 15.4428 -69.5831
26.0928 3.6111 0.0000
23.1742 40.5879 -60.6186
71.4809 12.3125 -22.4160
17.1609 12.3125 -0.8541
57.9830 12.3125 -49.0483
0.0000 5.8138 -19.7064
0.7442 0.0000 -24.2812
0.0000 19.5486 -59.9134
0.0000 18.1630 -39.9286
42.0003 12.3125 -62.6048
15.5676 0.0000 -31.8537
38.5628 12.3125 -36.8943
18.1609 0.0000 -69.9050
0.0000 30.6173 -61.9487
0.7319 47.9126 -76.3750
36.1250 36.2824 -66.5231
66.7787 12.3125 -42.2253
0.8423 0.0000 -58.2437
0.0000 23.1217 -44.9600
36.7577 18.8226 -76.3750
37.1167 0.0000 -53.3827
55.8481 20.3999 -44.1708
0.0000 12.6831 -63.4333
54.5452 0.0000 -75.0431
66.5437 0.0000 -73.0907
36.1250 23.6466 -61.6361
2.9595 0.0000 -32.5362
68.9617 12.3125 -7.9365
0.0000 26.4479 -53.0968
28.7139 12.3125 -0.0815
41.7261 0.0000 -75.0005
36.1250 24.1891 -50.6243
36.8212 0.0000 -67.9305
22.8154 47.5729 -76.3750
48.1150 12.3125 -35.9428
16.4056 2.4739 0.0000
45.6686 12.3125 -41.1480
0.0000 16.2913 -66.7141
36.1250 32.3677 -74.2932
10.9201 0.0000 -57.8420
34.6676 40.9555 -61.4066
36.1250 21.3788 -24.6256
30.1297 39.1262 -57.4849
0.0000 23.5940 -73.6656
40.1794 12.3125 -48.3640
33.8046 12.3125 -11.0101
36.1250 25.5699 -66.2678
72.2500 4.0465 -72.7222
36.1250 29.2086 -69.5969
24.4004 45.4355 -76.3750
62.3334 17.2022 -64.2675
16.3999 0.0000 -74.9131
70.7411 12.3125 -5.6974
39.0535 12.3125 -70.0707
33.7939 0.0000 -53.9259
16.3856 12.3125 -5.5452
16.3979 0.0000 -46.1184
55.6826 2.4750 -76.3750
10.4740 0.0000 -27.1367
36.1250 36.1569 -58.1744
0.0000 3.4594 -8.6170
71.7768 12.3125 -31.9986
0.0000 15.4440 -28.4974
20.9963 39.9981 -59.3539
0.0000 2.0791 -44.5297
0.0000 27.0900 -65.5997
5.7279 0.0000 -36.4830
18.1092 12.3125 -3.2854
36.1250 35.1676 -71.9216
2.8429 0.0000 -63.3259
15.2597 44.9817 -70.0382
41.7773 3.8234 0.0000
72.2500 3.0319 -22.8230
16.4525 40.0531 -59.4719
30.1929 0.0000 -67.5485
71.8513 12.5091 -75.7180
36.7181 12.3125 -71.4760
72.2500 8.5385 -69.6007
67.5259 0.5767 -76.3750
7.9042 0.0000 -21.8457
10.9075 0.0000 -53.0695
30.5672 12.3125 -27.4985
5.1654 0.0000 -54.7760
36.1250 40.8819 -63.4751
68.5864 14.1189 -42.1587
56.9556 12.3125 -36.8070
0.0000 35.5482 -72.2828
55.2050 12.3125 -44.0668
26.4410 12.3125 -24.1135
37.9559 12.3125 -66.3020
23.7725 0.0000 -66.1625
72.2500 2.6702 -35.8190
50.6641 0.0000 -58.3227
0.1995 0.0000 -39.3622
0.0000 12.9931 -21.0562
36.1250 21.8272 -43.4886
33.9269 0.0000 -61.9504
24.7972 0.0000 -58.7167
11.1019 0.0000 -23.4759
55.7563 15.1973 -76.3750
29.5209 33.5821 -76.3750
44.4972 0.0000 -50.2678
0.0000 17.0514 -70.7973
25.1729 42.2380 -64.1561
66.4387 15.1779 -43.2449
35.7072 37.3345 -76.3750
57.4605 19.6049 -51.5621
0.0000 25.6173 -30.8828
0.0000 29.1422 -67.7171
0.0000 6.5573 -4.6393
54.6584 0.9949 0.0000
14.8140 12.3125 -13.2814
0.0000 9.6444 -15.4761
14.9753 0.0000 -53.8301
36.1250 31.5756 -65.7097
41.9012 18.0132 -76.3750
36.1250 15.9617 -17.1770
72.2500 5.3834 -39.0035
36.2118 3.7566 0.0000
42.0593 0.0000 -68.3621
0.0000 35.8424 -66.6600
26.9529 12.3125 -16.2596
34.1861 12.3125 -18.5704
31.2563 0.7526 -76.3750
24.8295 2.2866 -76.3750
21.5352 0.0000 -53.4789
56.8039 19.9286 -58.4358
61.1434 17.7889 -43.3607
0.0000 1.9171 -14.3814
6.5238 0.0000 -10.4431
36.1250 14.4669 -42.3576
26.0214 0.0000 -45.5451
10.6001 0.0000 -65.3502
46.4351 22.5305 -38.1875
36.1250 12.5643 -34.3873
5.8556 0.0000 -57.3410
0.0000 0.8040 -65.4974
33.4666 45.4142 -70.9655
35.5233 12.3125 -15.0260
28.1291 37.1291 -76.3750
36.1250 41.6749 -74.6143
0.0000 22.8628 -25.7005
0.0000 33.7432 -75.9959
0.0000 1.6523 -6.6216
72.2500 5.2894 -62.5336
43.6296 0.2453 0.0000
46.8648 0.0000 -73.5576
29.5107 12.3125 -10.8423
60.9034 17.9073 -48.2465
41.1654 0.0000 -48.4101
29.6382 0.0000 -63.7613
0.0000 4.9533 -1.9606
36.1250 28.8145 -38.1040
0.0000 27.1527 -39.5819
43.1509 12.3125 -67.9063
34.1326 0.0000 -39.1264
55.8962 20.3762 -53.5610
4.5916 0.0000 -19.6757
0.0000 3.7781 -35.9818
44.4142 25.9016 -38.1875
71.5227 12.3125 -17.2592
62.6653 12.3125 -39.0707
50.6986 2.7088 -76.3750
19.2068 0.0000 -50.8068
47.7532 7.2489 0.0000
72.2500 2.9144 -44.0943
59.6520 0.0000 -73.6874
17.5029 0.0000 -30.3042
25.4915 0.0000 -64.2115
58.3723 19.1553 -46.0767
0.0000 25.5280 -50.5028
72.2500 2.1193 -29.1553
59.4210 12.3125 -35.5473
0.0000 5.5943 -10.0534
28.9008 0.0000 -55.3259
41.8839 0.0000 -56.2092
7.9574 0.0000 -75.9813
3.4465 0.0000 -5.4634
0.0000 12.3914 -48.8950
13.2290 12.3125 -3.3517
0.0000 30.0031 -73.2723
16.3006 44.5842 -76.3750
0.0000 21.8505 -29.1156
0.0000 15.5640 -50.6988
18.2360 0.0000 -21.0066
0.0000 38.0625 -57.7383
48.0760 19.0517 -38.1875
47.7287 0.0000 -64.1786
70.8923 12.9820 -70.0332
0.0000 12.5447 -12.2404
40.6355 12.3125 -55.2624
45.2990 12.4748 -76.3750
61.3934 12.3125 -46.5061
32.7695 43.2488 -66.3230
0.0000 12.6995 -61.0597
49.3657 0.0000 -75.5165
31.7702 33.0834 -44.5300
68.7983 14.0145 -61.2338
46.1771 3.1969 -76.3750
24.5206 37.8920 -54.8388
56.7454 6.6681 0.0000
4.5738 0.0000 -71.6814
60.6206 7.4943 0.0000
51.8782 0.0000 -62.7777
0.0000 6.4647 -0.1008
14.3080 12.3125 -0.5961
32.1166 0.2158 0.0000
44.4473 26.0215 -46.3755
8.4328 0.0000 -48.4653
51.7885 19.6328 -38.1875
36.1250 30.2858 -55.0833
0.0000 20.8221 -64.7462
47.6563 14.6244 -38.1875
36.1250 29.2353 -57.3216
24.6200 35.9029 -50.5746
61.3109 12.3125 -15.7953
0.0000 21.7901 -55.5364
14.4366 45.9116 -72.0318
64.3123 5.3741 0.0000
0.0000 2.8718 -41.3022
0.0000 20.0605 -50.5527
70.7888 2.5500 0.0000
13.8420 0.0000 -66.2000
36.1250 19.2012 -52.1383
23.5012 0.0000 -41.7444
0.0000 42.9845 -66.0391
2.7863 0.0000 -52.9246
44.4623 12.3125 -63.4263
30.4585 12.3125 -31.4445
43.4923 26.4404 -76.3750
36.1250 39.5023 -73.4754
46.3742 25.0046 -76.3750
23.1694 44.5548 -69.1230
22.0885 39.0425 -57.3054
31.6387 0.0000 -53.0270
28.1248 45.7938 -76.3750
0.0000 37.0594 -63.7525
48.7787 12.3125 -30.5509
64.3380 16.2137 -52.5265
15.7228 0.0000 -39.4657
12.0013 0.0000 -43.8118
52.0236 12.3125 -34.2718
0.0000 25.4333 -44.7205
0.0000 1.4985 -11.8289
68.5591 12.3125 -13.4662
69.4510 13.6927 -51.4217
39.0017 6.3335 0.0000
0.0000 9.9316 -5.2786
72.2500 2.8777 -62.2202
0.0000 23.0089 -36.6686
21.2173 12.3125 -6.9970
18.6615 12.3125 -14.7512
26.9022 34.9632 -48.5598
53.5349 12.3125 -46.1114
17.5294 39.7551 -76.3750
22.1559 0.0000 -76.2554
0.7175 9.5768 -76.3750
72.2500 0.6971 -53.4614
64.9344 15.2121 -38.1875
0.0000 13.9347 -38.0891
36.1250 22.6173 -52.3010
69.6127 12.3125 -30.4694
36.1250 22.0217 -35.4279
8.3689 0.0000 -69.0355
36.1250 31.5023 -69.0935
0.0000 17.0742 -46.9988
65.2331 15.1841 -76.3750
2.3636 0.0000 -21.9337
27.9822 0.0000 -59.4189
0.0000 27.5497 -73.1390
36.1250 27.3675 -55.7501
20.1763 12.3125 -12.2161
50.8249 12.3125 -56.0713
38.9964 0.0000 -43.9202
29.2861 12.3125 -13.5315
36.1250 32.7207 -61.1788
41.3500 27.5487 -40.0771
25.8528 12.3125 -20.1783
25.2876 42.5032 -76.3750
38.8039 12.3125 -43.4333
0.0000 28.4637 -41.7134
55.9544 9.4145 0.0000
45.5866 12.3125 -36.3338
72.2500 4.3128 -27.3073
71.9108 12.4797 -73.2979
53.7750 21.4221 -45.2864
53.9164 12.3125 -49.6616
59.7747 18.4638 -50.8855
0.0000 1.1058 -48.5271
26.8251 0.0000 -70.2024
60.4108 18.1502 -59.1172
8.9707 12.3125 -7.5653
28.5446 0.0000 -31.6893
13.3047 47.5950 -75.6407
72.2500 2.3570 -56.8567
58.9912 12.3125 -32.9626
36.4567 12.3125 -54.1956
33.2960 12.3125 -21.9212
2.5044 0.0000 -11.3967
0.0845 2.8585 -76.3750
24.4029 12.3125 -11.6200
0.0000 12.6540 -16.9457
65.3968 12.3125 -20.5835
40.1395 25.1589 -76.3750
36.1250 15.2882 -12.2417
58.3715 2.0778 -76.3750
0.0000 22.1154 -57.9728
0.0000 18.2434 -73.1040
40.9194 12.7153 -38.1875
0.0000 24.5017 -68.5233
6.5917 46.7882 -73.9111
35.8806 46.1282 -76.3750
36.1250 32.2902 -47.9747
55.1074 12.3125 -55.9667
46.5609 12.3125 -49.2421
11.6258 0.7578 -76.3750
31.8009 0.0000 -35.1333
44.1173 12.3125 -56.8025
64.5583 0.0000 -68.6345
44.6657 12.3125 -51.8016
10.7485 0.0000 -48.4831
59.8014 17.6312 -76.3750
62.3086 17.2144 -52.4144
0.0000 1.8451 -3.5597
40.7248 12.3125 -67.9498
58.3401 19.1712 -40.3002
36.1250 27.7597 -40.5528
5.8957 8.7155 -76.3750
0.0000 26.8115 -36.6243
72.2500 0.2386 -73.0645
33.6814 0.0000 -72.9245
10.0183 0.0000 -19.8347
67.4781 12.3125 -39.4598
69.4493 13.6934 -65.2652
68.0510 12.3125 -34.8027
33.3284 0.0000 -70.0019
33.0527 0.0000 -48.5912
60.6505 12.3125 -31.4427
0.0000 0.0978 -20.8445
36.1250 21.6726 -48.4458
13.0700 43.3308 -76.3750
44.8397 21.8153 -76.3750
71.1990 12.3125 -10.2730
24.4405 0.0000 -34.3000
4.1384 0.0000 -67.6315
72.2500 1.2343 -24.3433
29.4840 12.3125 -7.8227
55.2504 12.3125 -39.3537
10.6578 45.9780 -72.1742
20.9057 43.2910 -66.4135
36.0783 12.3125 -10.1254
47.3396 2.7041 0.0000
13.7470 0.0000 -61.2678
30.7998 35.7448 -50.2357
0.7128 0.0000 -35.8166
36.1250 36.0470 -64.1530
42.5257 12.3125 -48.1176
39.4455 17.3310 -38.1875
0.0000 33.8448 -50.6494
36.1250 12.5836 -6.8534
0.0000 26.3576 -70.4796
0.0000 14.5390 -56.9038
0.0000 0.7477 -29.3412
42.1580 16.4946 -38.1875
44.5475 0.0000 -68.1900
37.4113 12.3125 -39.0631
0.0000 31.9807 -66.2447
47.5093 0.0000 -61.1556
47.7070 12.3125 -40.4073
19.8271 0.0000 -55.4272
16.7930 0.0000 -34.3818
33.3363 0.0000 -43.6992
58.9964 6.0612 0.0000
16.5062 0.0000 -67.2374
0.0000 16.7281 -32.1041
2.1489 0.0000 -16.9124
8.4880 47.5940 -75.6387
0.0000 3.1982 -24.3737
3.5413 12.3125 -1.9523
0.0000 8.0079 -26.6144
0.0000 21.8631 -20.8639
27.5778 36.4574 -51.7633
65.9209 12.3125 -10.3047
64.6241 16.0727 -57.6571
48.5086 12.3125 -33.1581
17.0985 0.0000 -54.3819
0.0000 16.1745 -14.6797
35.0432 37.4251 -53.8380
58.5382 12.7627 -38.1875
0.0000 24.3384 -32.6069
36.5382 12.3125 -61.0230
59.4152 12.3125 -47.4496
34.1538 12.3125 -13.3581
72.2500 0.8551 -44.6941
36.1250 30.7605 -63.5738
16.6875 43.2285 -66.2796
0.0000 17.6490 -63.7815
0.0000 26.9619 -48.7440
8.1595 0.0000 -17.5229
50.1712 0.0000 -56.1860
4.1471 3.7318 -76.3750
14.3719 0.0000 -20.8584
61.3472 12.3125 -21.8094
36.1250 14.5935 -35.1077
39.7625 0.0000 -46.3872
0.0000 0.6639 -53.0972
26.5489 45.2365 -70.5845
13.8200 2.6652 -76.3750
63.2862 12.3125 -24.4381
36.1250 19.8452 -31.7132
35.8000 12.3125 -23.6667
36.1250 27.7283 -65.3116
41.3975 12.6981 -76.3750
20.8302 40.1549 -76.3750
13.5591 0.0000 -18.3259
45.7214 12.3125 -44.4037
56.3368 12.3125 -22.0857
27.5751 12.3125 -3.2890
38.4832 12.3125 -50.6085
22.1547 0.0000 -44.8234
36.0984 30.2845 -76.3750
19.4227 5.3938 -76.3750
27.9540 0.0000 -37.2209
56.0391 20.3058 -49.4857
36.1250 43.1127 -70.4186
60.3299 9.9688 0.0000
7.5208 12.3125 -3.6069
34.8876 0.0000 -67.0834
44.0398 0.0000 -60.6628
36.1250 24.1269 -30.5513
38.3414 0.8523 -76.3750
0.0000 0.4350 -60.3124
33.5478 4.3216 0.0000
47.2639 0.0000 -68.6621
32.3142 12.3125 -0.8718
0.0000 33.5790 -71.5408
48.2377 12.3125 -45.1044
36.1250 18.8756 -14.2022
56.1512 12.3125 -30.0213
0.0000 25.7506 -57.9251
38.3862 0.0000 -71.5837
0.0000 33.7844 -57.8911
3.6551 0.0000 -14.2722
61.8525 14.1328 -76.3750
51.4585 22.5644 -43.4497
0.0000 14.5989 -70.4052
42.8364 12.3125 -65.3964
0.0000 38.7031 -70.6783
0.0000 12.7587 -8.1295
69.7038 10.3624 0.0000
36.1250 16.2958 -30.6973
0.0000 20.9844 -46.6127
38.0554 20.7046 -38.1875
20.1935 12.3125 -3.4373
11.5914 0.0000 -34.7495
11.2010 43.9851 -67.9015
25.4552 40.4371 -60.2951
14.5233 0.0000 -48.3348
0.0000 19.9455 -34.6538
66.2659 2.0911 0.0000
0.0000 5.0649 -30.9524
20.4681 12.3125 -16.2509
19.0294 0.0000 -60.4530
58.5724 14.4630 -76.3750
48.3261 14.7470 -76.3750
63.6396 16.5581 -60.7524
0.0000 13.9121 -46.6156
24.9085 12.3125 -5.9105
19.7027 41.9403 -63.5180
32.0708 39.5511 -58.3956
0.0000 18.1688 -42.2420
0.0000 14.2637 -67.8274
0.0000 22.5938 -39.7242
72.2500 0.9878 -68.9166
72.2500 2.2352 -17.2672
36.1250 23.8148 -40.9233
68.0706 14.3733 -47.1409
36.1250 38.1663 -59.9592
53.9927 12.3125 -33.4766
36.1250 28.3369 -45.0751
15.2193 0.0000 -62.7154
70.0968 12.3125 -39.0268
58.8652 18.9123 -55.3704
8.1259 2.8601 -76.3750
18.8690 44.7486 -69.5385
0.0000 2.4876 -31.1686
32.6202 12.3125 -27.5207
0.0000 37.7932 -75.4252
0.0000 24.8927 -63.6816
0.0000 14.4285 -53.3860
66.9430 14.9293 -38.4644
0.0000 45.6148 -72.3715
16.1785 0.0000 -17.1074
51.3968 22.5948 -49.0544
12.9061 0.0000 -57.0396
48.5816 23.9829 -48.7551
36.1250 24.9350 -57.7923
48.0254 0.0000 -53.6934
42.0098 24.3425 -76.3750
72.2500 7.4893 -65.8679
36.1250 27.1564 -51.8834
72.2500 4.8523 -47.7867
8.3417 0.0000 -71.8430
7.3842 6.9999 -76.3750
21.6289 0.0000 -27.0985
27.3540 40.6073 -76.3750
11.0243 0.0000 -14.8538
44.9113 12.3125 -61.4433
0.0000 40.9364 -66.4539
25.9963 44.1082 -68.1655
0.0000 2.6790 -56.3242
28.8295 46.9011 -74.1531
0.0000 34.7461 -55.4011
37.2895 0.0000 -48.4939
0.0000 35.1427 -62.4763
18.6754 12.3125 -18.4698
72.2500 2.8952 -69.8690
36.9739 0.0000 -74.5699
11.6014 0.0000 -71.8839
36.5565 0.0000 -72.4505
7.5522 0.0000 -31.4561
13.2513 43.1120 -66.0297
36.1250 26.1944 -36.1229
32.3737 45.5599 -76.3750
22.4946 0.0000 -36.1028
9.0727 0.0000 -38.9235
72.2500 9.4002 -72.1001
0.0000 7.9326 -18.8956
66.2101 15.2906 -63.4328
53.2840 21.6642 -49.5973
0.0000 14.6536 -63.8422
10.4230 10.1811 -76.3750
53.2646 3.2031 0.0000
56.5076 15.5152 -38.1875
35.1396 0.0000 -52.4447
60.2128 0.0000 -75.6070
22.6034 0.0000 -71.8631
36.1250 19.4294 -35.7849
35.7212 36.0986 -50.9941
0.0000 30.3492 -70.4076
18.1737 47.9269 -76.3522
4.6006 0.0000 -10.9836
0.0000 16.6060 -19.6199
10.1919 45.0017 -76.3750
31.2941 42.4535 -64.6181
51.0235 22.7789 -38.2645
72.2500 7.5869 -76.3086
0.0000 31.3827 -42.7826
70.9646 7.7288 0.0000
0.0000 6.2027 -11.9502
0.0000 29.6721 -56.1426
57.1078 0.0000 -74.4120
52.6603 21.9718 -40.6494
62.7515 16.9960 -46.7072
48.7566 19.3044 -76.3750
0.0000 42.9956 -75.8515
62.5761 12.3125 -41.8706
36.1250 18.8816 -46.6079
0.0000 20.5485 -74.6071
60.9373 17.1095 -38.1875
41.6151 14.7806 -76.3750
31.0663 12.3125 -14.3832
50.5320 23.0212 -50.8113
8.3607 0.0000 -34.5781
40.2465 12.3125 -63.8397
66.4802 12.3125 -16.4524
61.3405 17.6918 -55.4628
40.6847 12.3125 -53.2943
36.1250 29.3386 -61.5523
65.7198 15.5324 -47.5086
20.5862 0.0000 -24.1431
13.4408 12.3125 -8.9452
38.8695 0.0000 -67.5673
59.4360 18.6308 -38.7612
31.4358 46.9897 -74.3430
17.9285 0.0000 -25.8476
65.7866 15.4995 -55.1816
14.4871 0.0000 -44.4145
53.7001 12.3125 -53.8898
25.7963 4.5048 -76.3750
36.1250 41.1416 -69.2925
49.8477 12.3125 -47.3752
36.1250 19.7128 -48.4035
50.4369 23.0681 -45.1244
0.0000 35.0644 -68.9594
36.1250 14.3557 -30.9852
68.8605 12.5124 -76.3750
38.0726 15.6111 -38.1875
5.6732 0.0000 -23.8804
10.7942 47.0328 -74.4354
36.1250 16.1776 -37.5228
12.6053 0.0000 -47.8718
0.7620 0.0000 -3.2684
45.2766 14.8820 -76.3750
19.6987 0.0000 -73.4833
69.7104 13.5647 -46.4598
23.1709 12.3125 -15.6679
38.3576 26.3613 -38.1875
40.3937 0.0000 -63.6089
37.7941 0.0000 -59.4721
36.1250 21.1895 -19.3473
38.0596 1.2775 0.0000
36.1250 31.0263 -51.0703
48.7803 12.3125 -52.4268
57.5446 19.5634 -38.2756
16.0321 12.3125 -15.1115
16.1095 0.5517 0.0000
38.1720 14.6943 -76.3750
39.3223 12.3125 -35.1078
50.0953 12.3125 -34.4925
34.8667 2.3512 0.0000
4.8156 47.2183 -74.8332
54.6019 0.0000 -71.8476
26.8546 0.0000 -53.9520
64.3296 16.2179 -40.5189
64.0252 16.3680 -50.2362
49.3688 12.3125 -59.4619
28.5732 0.0000 -73.0529
23.1842 0.0000 -59.7824
65.0578 0.0000 -71.6273
69.0785 13.8763 -68.5069
69.3692 0.0023 -76.3750
14.4553 12.3125 -5.5516
21.7321 45.0996 -70.2908
27.4770 2.1618 0.0000
36.1250 20.0887 -28.5410
1.5423 0.0000 -40.9521
13.7168 8.7137 -76.3750
34.1731 0.0000 -56.7494
13.2247 0.0000 -23.8279
72.2500 4.0408 -41.9476
62.7955 0.0000 -75.8349
0.0000 17.0264 -36.1438
16.2712 0.0000 -69.3721
22.2975 0.0000 -62.6005
64.4259 12.3125 -36.5982
1.9518 6.9534 -76.3750
38.6332 12.3125 -62.2256
21.5391 0.0000 -66.9046
19.3877 12.3125 -7.5820
55.7036 0.0000 -68.0047
2.2825 0.0000 -6.9850
42.1878 23.6335 -38.1875
30.4764 0.0000 -46.6054
59.8448 12.3125 -49.7117
61.5355 0.0000 -67.9501
2.7235 0.0000 -72.1470
54.2220 21.2017 -41.4685
0.0000 3.6293 -10.5153
0.0000 20.5250 -32.1608
45.1065 1.7406 0.0000
4.5496 0.0000 -21.5791
12.1070 0.0000 -37.2891
36.1250 17.3437 -22.0914
72.2500 0.1869 -22.6202
66.4260 12.3125 -14.4292
60.6738 12.3125 -27.2609
72.2500 0.7289 -39.9069
21.2073 46.5589 -76.3750
36.2188 12.3125 -65.4378
64.1607 12.3125 -43.0078
0.0000 0.0861 -7.6964
29.6711 12.3125 -21.1250
18.4361 2.3035 0.0000
69.8613 13.4903 -62.9225
36.1250 32.5624 -76.2039
34.5733 43.4942 -66.8492
43.1693 0.0000 -48.9197
36.1250 24.2040 -33.9081
24.2074 12.3125 -9.7393
36.1250 14.4182 -22.9267
11.9698 0.0000 -69.5037
0.0000 28.2855 -34.6016
53.8409 0.0000 -61.4435
36.3292 12.3125 -73.9479
9.0376 45.1546 -70.4088
47.7865 16.5538 -76.3750
5.9042 45.2361 -76.3750
31.4524 0.0000 -43.7411
23.6944 0.0000 -27.8591
41.8453 0.0000 -59.8566
70.5393 12.3125 -26.6169
64.5183 16.1248 -68.1424
30.5078 5.9400 -76.3750
0.0000 20.4968 -68.8532
72.2500 7.7850 -61.0451
68.8845 3.9202 0.0000
36.1250 26.8097 -43.3402
4.8163 0.0000 -33.1398
0.0000 25.7180 -61.5752
1.0604 0.0000 -37.6601
8.4053 0.0000 -46.4830
45.2677 0.0144 -76.3750
0.0000 25.8692 -55.3947
4.4870 0.0000 -48.0103
0.0000 3.2285 -33.5204
14.2542 41.1360 -76.3750
11.5899 0.0000 -63.4487
6.4722 0.0000 -68.0261
7.9787 0.0000 -61.4132
1.6302 0.0000 -42.8197
70.2137 12.3125 -15.3402
22.6764 0.0000 -48.5205
51.7581 12.3125 -52.0739
17.3530 4.6947 -76.3750
0.0000 28.7964 -74.6998
59.6439 18.5283 -44.2699
51.2606 12.3125 -29.9382
54.3672 21.1301 -54.8982
32.2925 0.0000 -56.9185
66.7750 12.3125 -33.4484
43.6523 26.4134 -42.9448
42.8158 0.0000 -52.6013
0.0000 1.9431 -64.0275
62.2272 2.3477 0.0000
24.9080 37.7374 -76.3750
38.7181 0.0000 -61.2484
72.2500 0.0162 -18.3318
67.4548 14.6769 -51.2610
0.0000 13.3033 -75.2755
39.2475 12.3125 -40.1483
29.4003 2.5180 -76.3750
17.0728 0.0000 -58.5458
63.3632 0.1950 0.0000
1.4282 0.0000 -56.3881
36.1250 34.5865 -65.7857
20.3632 41.9442 -76.3750
0.0000 24.4911 -75.9487
0.0000 21.3039 -44.6391
0.0000 15.8980 -10.2546
57.5500 19.5607 -53.4955
0.0000 20.8022 -42.5222
51.7317 16.7545 -38.1875
55.3480 12.3125 -20.5326
8.7739 12.3125 -0.4564
54.7634 20.9348 -38.5250
51.0257 22.7778 -46.8436
61.5976 12.3125 -35.3761
29.6348 12.3125 -23.8013
24.3804 0.0000 -73.4865
0.0000 20.9788 -52.6739
42.5524 12.3125 -32.3575
27.2507 42.4026 -64.5089
45.2269 12.3125 -47.1937
22.8089 12.3125 -20.7353
35.7638 44.4554 -68.9098
72.2500 2.5518 -65.7285
45.8256 12.3125 -55.8484
71.2816 12.7900 -54.0976
34.5331 39.0171 -57.2510
36.1250 32.3314 -58.5956
0.0000 1.8203 -9.4359
36.1250 28.2446 -47.7512
35.0395 5.3909 0.0000
48.8918 0.0000 -67.8250
72.2500 6.9102 -53.9223
58.4176 19.1330 -58.1057
9.8517 12.3125 -5.9625
72.2500 2.4851 -27.2417
58.8937 12.3125 -28.6892
17.8212 1.2987 -76.3750
0.0000 15.5180 -30.3241
42.9163 0.0000 -66.7472
0.0000 15.9371 -69.1608
44.1234 0.0000 -56.2049
25.8745 45.9537 -72.1221
40.6717 0.5745 -76.3750
43.4910 3.0780 -76.3750
36.1250 16.6099 -34.2962
44.4620 12.3125 -39.7793
42.3758 22.0368 -76.3750
56.9955 12.3125 -32.2501
23.2365 45.9587 -72.1328
40.7536 21.0178 -76.3750
34.8879 12.3125 -36.3606
0.0000 31.3152 -68.4752
59.7182 18.4917 -60.7668
26.3038 45.8119 -76.3750
40.5424 12.3125 -71.1603
43.3256 12.3125 -35.1758
72.2071 12.3337 -67.4836
27.9260 12.3125 -27.0175
37.6178 29.3889 -38.9677
33.2413 12.3125 -7.3357
54.8185 18.6042 -38.1875
65.0014 15.8866 -45.8808
0.0000 31.8498 -75.0872
32.7319 41.0899 -61.6947
24.5303 12.3125 -0.1590
0.0000 30.0049 -51.6319
0.0000 24.4942 -71.5635
0.0000 18.2577 -51.3155
24.1787 0.0000 -49.5650
70.2027 13.3220 -58.2992
36.1250 30.2488 -43.5955
54.7644 12.3125 -41.0986
24.9438 36.7841 -52.4636
44.3865 13.1752 -38.1875
28.8892 42.7865 -65.3320
4.2343 0.0000 -62.1722
47.9762 12.3125 -37.7448
36.1250 32.2193 -45.8817
0.0000 31.8119 -46.4183
19.6879 0.0000 -49.0649
34.8928 2.4957 -76.3750
20.8120 0.0000 -75.0481
37.8461 17.3812 -76.3750
36.6854 0.0000 -41.4815
23.7020 0.0000 -46.1290
49.3740 5.7072 0.0000
40.7558 0.0000 -58.0270
59.9115 12.3125 -14.3050
9.7595 0.0000 -75.9487
9.5243 0.0000 -55.1849
42.9184 21.0539 -38.1875
25.1533 12.3125 -16.3130
72.2500 4.7356 -49.6496
0.0000 5.9718 -21.4990
35.0994 31.3868 -40.8925
39.9198 0.0000 -50.4840
35.6247 12.3125 -28.0127
36.1250 14.4375 -5.2140
46.7014 12.3125 -61.5781
29.8888 0.0000 -53.4245
39.2252 28.5964 -39.9074
52.7139 14.3382 -38.1875
28.3416 45.2257 -70.5613
0.0000 16.7419 -23.8222
0.0000 40.6490 -74.1027
0.0000 13.8757 -41.1478
22.7328 43.3336 -66.5049
56.5327 12.3125 -51.5104
36.1250 34.5828 -57.3292
72.2500 5.3663 -65.9435
0.0000 28.6413 -48.1359
0.0000 27.5585 -43.6936
20.4603 0.4344 0.0000
48.5496 12.3125 -48.8413
14.2108 0.0000 -55.4517
42.8999 14.2862 -38.1875
0.0000 23.5160 -50.3171
36.1250 13.2072 -19.7476
49.1709 2.6139 0.0000
42.8604 12.3125 -53.0174
8.1900 0.0000 -64.2559
36.1250 27.7110 -68.6368
47.8053 24.3657 -45.2378
0.0000 31.5171 -58.5303
39.2546 0.0000 -52.1316
5.1659 45.8215 -71.8385
41.6060 0.0000 -46.0176
2.0483 0.0000 -75.9697
2.6760 0.0000 -50.3536
41.0846 12.3125 -35.8859
19.9391 0.0000 -61.9724
65.6771 12.3125 -39.7996
45.9079 0.0000 -54.7671
0.0000 18.9056 -45.6016
37.6815 23.8564 -38.1875
48.4076 24.0687 -41.2993
17.6750 12.3125 -10.0945
0.0000 17.7915 -56.1789
28.8838 37.0296 -52.9901
52.4603 6.9663 0.0000
52.0037 8.8487 0.0000
42.0766 0.0000 -71.0148
0.0000 35.0111 -59.3871
34.4689 0.0000 -46.1486
0.0000 13.5478 -26.2426
21.5260 47.1831 -74.7576
24.5058 40.9241 -76.3750
46.1534 12.3125 -57.9229
72.2500 8.5782 -74.8521
0.0000 32.9384 -54.5195
57.9899 0.0000 -66.3795
20.6556 1.8791 -76.3750
70.2762 0.3230 0.0000
28.3206 0.0000 -35.2934
1.3667 0.0000 -27.9321
69.7224 12.3125 -22.4553
48.8536 0.0000 -71.2257
65.2330 12.3125 -31.2160
0.0000 41.0531 -62.3069
0.0000 32.1044 -70.5042
65.7601 0.0000 -74.7099
0.2619 0.0000 -70.3178
9.2360 0.0000 -25.8915
57.2147 18.4802 -76.3750
72.2500 3.6875 -52.5754
36.1250 28.4275 -59.0835
34.5927 45.9820 -72.1826
0.0000 25.8029 -73.2666
68.5029 14.1601 -56.9796
36.1250 17.5806 -15.9841
72.2500 4.9818 -58.3882
45.7515 0.0000 -60.2959
27.2337 40.9023 -61.2926
72.2500 0.2790 -2.3445
54.9283 20.8535 -48.0242
11.9165 0.0000 -45.6548
30.7862 37.3730 -53.7262
7.1647 0.0000 -13.0787
58.8407 12.3125 -19.6655
26.7629 35.8058 -50.3664
0.0616 0.0000 -73.7283
38.7330 12.3125 -46.2223
36.1250 34.0161 -75.2479
0.0000 20.7169 -36.5247
31.3745 0.0000 -50.5258
27.9850 1.5113 -76.3750
7.0740 46.0830 -72.3991
27.4191 47.6356 -75.7277
7.7706 0.0000 -50.0679
49.6309 14.0009 -38.1875
23.4762 0.0000 -32.6129
72.2500 10.5819 -68.2434
3.1488 0.0000 -37.4592
55.9323 12.3125 -42.4946
28.0341 12.3125 -9.9387
26.2962 0.0000 -62.6788
0.0000 30.3582 -45.3004
42.2758 27.0922 -41.4654
17.4788 42.2670 -76.3750
0.0000 34.5131 -73.6736
13.1723 0.0000 -30.6019
9.4066 43.3137 -66.4621
14.7283 43.8146 -76.3750
24.0050 0.5021 0.0000
67.6296 14.5907 -40.8016
0.5709 0.0000 -66.9142
62.5192 17.1105 -56.7622
43.5954 12.3125 -41.5450
48.8251 23.0577 -38.1875
36.1250 38.0017 -66.4197
52.5355 0.0000 -64.4098
0.0000 1.0654 -18.4607
4.2012 0.0000 -39.9514
19.7478 46.5157 -73.3268
58.8768 12.3125 -41.6491
0.0000 7.4700 -7.1688
31.8330 4.4451 0.0000
0.0000 24.0550 -54.2781
51.3930 14.2570 -76.3750
37.8566 0.0000 -56.3739
14.6490 4.8492 -76.3750
36.1250 18.0292 -27.8326
28.4935 0.0000 -48.7029
0.0000 18.8474 -26.1093
52.2449 0.0000 -69.8175
3.0189 9.9560 -76.3750
33.6604 0.0000 -60.2592
51.5984 12.3125 -43.3949
70.9621 12.9476 -65.8781
67.5482 12.3125 -37.7510
22.3393 37.6009 -54.2149
0.0000 37.6873 -67.1189
61.7440 15.0707 -38.1875
0.0000 33.0168 -61.5585
22.8599 12.3125 -2.1231
58.4609 12.3125 -17.9874
11.8403 12.3125 -1.7512
0.0000 0.4275 -33.5933
45.0935 0.0000 -66.5762
24.0121 0.6307 -76.3750
36.1250 20.9669 -56.6156
44.8647 12.3125 -34.4114
0.0000 19.3657 -67.3487
33.8071 36.4306 -76.3750
33.8019 33.3585 -76.3750
20.0748 0.0000 -39.8652
69.8397 13.5010 -59.9932
45.5163 0.0000 -71.4335
22.2713 0.0000 -70.0206
55.0647 12.3125 -23.2116
45.0566 24.3291 -38.1875
40.5594 0.0000 -67.4118
0.0000 3.3083 -1.5459
26.6567 0.0000 -35.6192
45.2067 25.6470 -41.9082
26.7823 0.0000 -51.6568
22.3903 0.0000 -51.9787
0.0000 22.5912 -27.5926
0.0000 29.3116 -50.0251
0.0000 5.5489 -32.7382
1.9914 0.0000 -73.7045
6.2856 0.0000 -40.8846
0.0000 12.9970 -33.6196
36.1250 25.2774 -31.7908
35.5746 0.0000 -40.2094
19.9479 0.0000 -65.1807
63.3975 6.7930 0.0000
13.1652 0.0000 -51.5004
12.5773 0.0000 -75.2075
61.6497 12.3125 -28.9740
54.6011 18.4151 -76.3750
38.2202 13.5038 -38.1875
0.0000 6.0383 -28.2744
18.5526 0.0000 -36.3232
36.1250 22.9169 -47.0508
9.5107 0.0000 -24.0835
71.4311 12.7163 -71.7028
0.0000 3.3971 -6.4387
67.1838 12.3875 -76.3750
63.9097 12.3125 -34.3813
16.7679 0.0000 -70.9780
25.1693 0.0000 -70.4914
37.5466 12.3125 -57.3337
62.7244 17.0094 -62.6469
67.2915 14.7574 -59.5063
23.7247 0.0000 -37.3178
72.2500 1.8986 -51.6120
51.0895 0.0000 -59.9452
42.6778 16.5286 -76.3750
33.2278 35.1651 -48.9929
30.0835 38.7927 -76.3750
41.1796 5.3872 0.0000
1.1736 0.0000 -44.9926
33.4346 39.9612 -59.2749
43.1084 5.2098 0.0000
72.2500 1.1436 -35.1349
72.2500 0.7360 -65.5507
0.0000 1.2445 -57.2031
5.5978 0.0000 -9.0535
33.0175 31.7021 -41.5687
30.3401 12.3125 -25.3148
0.0000 6.4257 -25.3043
55.8244 0.0000 -64.3899
36.8846 12.3125 -46.8700
32.9752 0.0000 -66.2061
45.8540 23.4238 -76.3750
54.0588 0.0000 -67.7113
36.1250 37.1911 -61.3054
55.5239 12.3125 -49.2415
55.6454 12.3125 -35.7869
72.2500 2.4478 -21.2690
28.0197 0.0000 -63.3948
0.0000 22.1776 -69.0046
26.7128 0.0000 -60.6455
63.5860 13.3726 -38.1875
72.2500 5.2955 -68.8068
23.5553 0.0000 -54.1937
36.1250 22.4814 -54.0150
72.2500 6.5644 -64.4922
53.6289 12.3125 -26.1679
59.5919 12.3125 -25.0847
36.1250 23.2967 -28.5776
0.0000 4.7400 -40.8788
0.0000 44.7728 -69.6086
32.6445 0.0000 -37.6331
14.5196 0.0000 -74.3280
53.6551 0.0000 -57.5686
43.4806 18.0113 -38.1875
23.4068 43.4374 -76.3750
66.2570 9.1311 0.0000
29.8809 12.3125 -4.8828
53.7589 20.8868 -76.3750
0.0000 15.3953 -42.6672
15.4016 0.0000 -35.2580
5.2019 0.0000 -74.7675
0.0000 22.6287 -71.9112
36.1250 13.0594 -8.6417
61.5950 0.0000 -74.1759
22.3870 12.3125 -13.0617
67.5324 12.3125 -17.8074
48.9652 0.0000 -65.2561
0.0000 14.0434 -49.4554
59.1581 12.3125 -45.8313
62.8307 12.3125 -12.4988
42.0007 0.0000 -63.9236
72.2500 2.0218 -60.8253
16.1146 0.0000 -29.4015
37.0759 0.0000 -43.3159
11.2341 12.3125 -4.4234
53.1643 12.3125 -44.5190
0.0000 1.7934 -28.0845
0.0000 11.6235 -3.0087
35.1277 42.6420 -65.0222
4.4001 0.0000 -53.1586
64.0225 9.3778 0.0000
13.0994 7.2047 -76.3750
29.5680 0.0000 -37.9868
32.6031 5.5477 -76.3750
18.7484 0.0000 -29.2545
0.0000 28.3850 -60.9465
15.4998 0.0000 -64.3417
0.0000 38.2843 -55.7326
0.0000 42.9059 -69.8408
43.8002 0.0000 -75.2345
11.4876 0.0000 -30.9320
17.1807 46.1273 -72.4942
68.1770 12.3125 -40.9279
33.0040 12.3125 -4.9163
42.2275 1.0670 0.0000
25.7447 44.2243 -76.3750
27.3489 4.9832 -76.3750
24.8498 12.3125 -23.7868
70.4908 12.3125 -2.9044
72.2500 7.1447 -48.9504
56.0579 0.0000 -70.6388
72.2500 5.9304 -72.3860
36.1250 26.6005 -62.6390
72.2500 10.9959 -72.7387
12.5503 12.3125 -10.7826
26.2457 39.4392 -58.1557
71.1123 12.8735 -40.8014
72.2500 0.9319 -11.3048
43.1694 26.6515 -38.9010
72.2500 0.7469 -58.5553
50.6904 2.0572 0.0000
69.5743 12.3125 -20.4849
9.4717 0.0000 -31.8582
30.4905 34.3973 -47.3466
0.0000 3.2775 -39.6205
57.9534 0.0000 -62.7454
25.1057 0.0000 -41.9333
61.1783 17.7717 -51.4038
6.4806 0.0000 -60.8013
46.5702 0.0000 -58.3173
32.6313 47.7246 -75.9185
64.5945 12.3125 -27.4689
62.6404 17.0508 -48.5291
36.1250 38.5507 -57.5233
12.5682 0.0000 -39.7063
36.1250 24.7434 -37.7476
0.0000 12.4329 -67.8413
26.6175 0.0000 -44.0479
32.1352 12.3125 -32.3233
36.1250 23.1496 -49.3939
0.0000 16.6517 -73.5635
72.2500 5.3032 -53.8275
16.9111 0.0000 -21.9204
7.6248 12.3125 -5.6677
17.8243 0.0000 -46.8616
29.1228 41.3816 -62.3200
0.0000 23.3352 -64.0798
19.6049 45.7331 -71.6490
61.2367 17.7429 -53.4883
69.7528 6.5621 0.0000
36.1250 18.5211 -17.6593
0.0000 0.1972 -14.8124
72.2500 3.4057 -48.4827
36.1250 25.8365 -56.4646
36.1250 30.6713 -58.2562
0.0000 29.0758 -69.4316
55.3959 0.2742 -76.3750
34.3883 36.8066 -52.5118
25.6684 0.0000 -29.9104
39.4341 12.3125 -51.8972
45.8997 3.5105 0.0000
22.6545 12.3125 -10.3027
36.1250 24.5338 -52.1872
12.0821 45.5980 -71.3593
71.6137 12.6262 -58.5907
6.8249 0.0000 -71.2810
0.0000 15.4473 -17.9094
0.0000 14.6332 -55.0909
21.5796 0.0000 -43.3326
36.1250 21.5598 -39.1885
0.0000 30.1087 -38.5558
30.3627 42.1332 -76.3750
70.1602 12.3125 -35.1640
0.0000 23.0527 -24.1155
1.0002 0.0000 -49.8143
0.0000 3.1468 -47.3678
8.9304 12.3125 -9.1597
37.8610 17.4949 -38.1875
23.6803 39.0648 -57.3533
37.3046 0.0000 -64.8503
30.6580 0.0000 -69.0701
28.0010 0.0000 -66.7557
30.8576 46.3633 -73.0001
32.1565 45.0336 -70.1495
14.3466 0.0000 -33.7985
23.3627 0.0000 -58.0367
43.9749 12.3125 -30.1477
72.2500 0.7094 -5.6441
18.4001 47.1557 -74.6989
61.0542 12.3125 -19.7265
0.0000 22.2818 -60.1229
21.3347 0.0000 -37.7173
3.6459 0.0000 -46.6687
55.3042 0.0000 -59.3461
72.2500 8.7553 -56.7399
67.3972 14.7053 -61.4775
24.7146 44.6958 -69.4253
0.0000 0.4835 -1.4930
2.3705 47.1892 -74.7707
36.1250 28.8089 -50.1379
1.1104 0.0000 -47.6712
8.2392 4.4521 -76.3750
9.6825 0.0000 -72.6774
21.2344 12.3125 -2.2497
47.4631 21.3318 -38.1875
42.7228 12.3125 -44.9748
0.0000 4.3530 -14.8137
57.0026 13.1231 -38.1875
4.6822 46.9200 -76.3750
19.7541 0.0000 -32.1286
61.4155 13.4864 -38.1875
0.0000 14.0924 -44.7508
34.8059 0.0000 -41.6166
41.5396 12.3125 -40.7821
26.6370 6.6683 -76.3750
0.0000 19.8844 -24.9314
36.1250 14.1867 -26.5892
19.5451 0.0000 -68.7345
34.6756 0.0000 -74.1902
69.2437 12.3125 -4.6057
36.1250 38.9547 -71.0507
41.4521 12.3125 -49.2757
33.6136 46.9926 -74.3494
65.4267 15.6769 -44.3898
36.1250 16.4579 -11.0915
9.6788 0.0000 -66.6569
36.1250 14.6027 -37.6619
72.2500 1.7947 -73.3662
26.5936 37.4243 -76.3750
36.1250 13.8229 -10.6305
0.0000 28.0842 -76.0895
14.7656 0.0000 -40.6994
6.5346 12.3125 -0.0725
41.2857 14.2891 -38.1875
26.5566 0.8836 -76.3750
36.1250 12.9654 -31.8010
72.2500 2.4988 -38.8498
67.4468 7.7222 0.0000
36.1250 16.4241 -29.1436
43.9726 0.0000 -71.7347
46.9665 12.3125 -53.5852
0.0000 15.7380 -59.9530
31.6529 12.3125 -17.1239
48.4381 0.0000 -69.6841
0.0000 33.6094 -67.2397
20.3362 44.4249 -76.3750
36.1250 29.6899 -64.7028
0.0000 8.8453 -8.9861
41.9273 0.0000 -73.4512
50.8493 0.0000 -66.7781
36.1250 33.9162 -49.0573
0.0000 16.4816 -26.3591
0.0000 19.5136 -41.4638
58.6805 12.3125 -40.1080
26.5934 0.0000 -74.6485
2.5482 0.0000 -59.2839
68.7730 14.0269 -72.0020
0.0000 35.3562 -70.4827
72.2500 4.5775 -33.9481
0.0000 1.3223 -40.1462
47.1107 0.0000 -51.3900
0.0000 38.9443 -74.3877
72.2500 3.8336 -36.9405
15.8349 0.0000 -61.1994
72.2500 2.0176 -67.7606
40.9416 0.0000 -54.9815
8.2743 10.4245 -76.3750
36.1250 29.5796 -41.1520
36.1250 14.0167 -21.3585
72.2500 3.2576 -71.3928
57.5695 2.1726 0.0000
32.2920 43.8696 -67.6541
39.7187 0.0000 -65.1444
41.8139 12.3125 -56.7260
54.6945 12.3125 -27.4463
31.0849 0.0000 -64.8111
55.3053 16.8501 -38.1875
0.0000 10.8490 -1.2879
4.5970 0.0000 -49.8272
36.1250 17.4510 -25.9116
34.4182 33.3400 -45.0800
55.9381 12.3125 -45.4216
0.0000 30.9970 -54.2988
20.9921 42.5316 -64.7855
4.6199 0.0000 -64.4573
50.1133 23.2276 -48.4891
26.3337 0.0000 -58.6398
49.9922 14.8916 -76.3750
0.0000 12.3303 -18.4478
4.9691 0.0000 -25.2457
36.1250 32.7132 -70.3568
0.0000 22.1107 -43.3243
0.0000 20.4327 -58.6608
7.7983 44.4353 -68.8667
17.2122 0.0000 -44.8151
10.3876 0.0000 -28.6759
27.8203 12.3125 -13.0940
53.0991 14.3983 -76.3750
0.0000 17.1789 -11.7734
36.1250 20.7165 -53.4352
6.7693 0.0000 -65.6311
39.8399 12.3125 -49.8542
72.2500 0.8381 -15.0661
34.6232 12.3125 -34.5156
57.9025 0.0000 -72.0135
0.0000 12.5331 -53.4568
57.6762 12.3125 -42.9665
65.4825 15.6494 -51.6871
0.0000 17.0883 -57.5323
2.9108 0.0000 -25.0609
28.9244 38.7326 -56.6411
7.0843 0.0000 -47.2411
1.4212 0.0000 -52.2496
0.0000 14.1741 -51.3181
57.8950 12.3125 -47.4247
70.2029 0.0000 -74.9773
36.1250 37.5919 -68.2152
31.4675 12.3125 -2.1335
3.3418 0.0000 -18.0147
45.6381 25.4343 -39.0512
36.1250 20.0373 -17.7390
0.0000 3.5174 -3.2730
35.9872 47.9050 -76.3054
51.5413 0.0000 -55.1504
0.0000 23.2693 -38.1633
37.5288 12.3125 -42.6116
26.7730 12.3125 -22.6338
5.8837 0.0000 -72.6763
16.5386 8.3589 -76.3750
52.2872 0.0000 -58.2215
67.1996 14.8028 -69.1358
49.1037 12.3125 -40.9938
0.0000 4.5211 -28.2376
72.2500 5.1850 -51.3091
60.9775 0.0000 -65.8123
69.9433 13.4499 -42.1894
33.1504 0.7843 -76.3750
30.6978 12.3125 -6.7007
31.9560 0.0000 -42.1572
14.7588 0.0000 -57.8120
11.5929 2.7864 -76.3750
21.7425 0.0000 -32.6784
7.0801 0.0000 -62.6852
36.1250 27.6268 -54.2620
30.1121 4.2270 0.0000
39.4526 18.1421 -76.3750
45.1314 16.7075 -38.1875
14.2629 46.0948 -76.3750
56.2093 2.8257 0.0000
0.0000 16.9975 -30.6177
0.0000 18.4683 -34.9891
53.9424 6.6904 0.0000
51.5141 12.3125 -49.3508
36.1250 31.7897 -54.9859
36.1250 19.4584 -22.0005
55.4095 12.3125 -18.6370
34.2724 0.0000 -68.8277
32.0724 0.0000 -59.4395
45.5922 25.4569 -47.4002
36.1250 27.0205 -66.6715
6.3931 0.0000 -35.1336
0.0000 18.0979 -20.3755
51.7186 12.3125 -28.4306
16.4437 0.0000 -24.0267
42.9088 12.3125 -58.8015
64.7022 12.3125 -17.5875
17.4769 12.3125 -6.8413
62.7292 12.3125 -15.3054
3.5353 0.0000 -76.1659
36.1317 12.3125 -39.8456
31.0126 12.3125 -30.0522
0.0000 8.3369 -3.4206
36.8365 0.0000 -51.1809
0.0000 21.1441 -30.4356
41.0478 2.5163 0.0000
37.3624 0.0000 -69.3709
0.0000 37.0419 -65.7656
0.0000 1.9028 -16.5996
24.3301 4.7949 -76.3750
28.1488 42.4310 -76.3750
0.0000 15.8408 -39.5775
8.7579 12.3125 -1.9493
34.4536 12.3125 -29.9136
10.6366 0.0000 -37.6868
72.2500 1.3764 -43.2972
32.2504 39.1678 -76.3750
20.0544 12.3125 -8.9145
36.1250 39.0027 -74.8786
61.7804 0.0000 -71.7522
51.2775 20.8478 -76.3750
0.0000 27.6102 -37.8806
30.2700 0.0000 -56.3976
47.7482 2.7393 -76.3750
48.8617 12.3125 -54.5200
36.1250 32.1515 -63.0533
0.0000 20.8353 -54.1518
35.0809 12.3125 -16.4432
11.2412 12.3125 -11.6041
0.0000 26.9181 -45.0325
65.1352 15.8206 -66.3123
55.8654 4.9907 0.0000
36.1250 25.2147 -39.2677
36.1250 32.6831 -64.6101
54.3245 21.1512 -53.4177
33.8318 0.0000 -63.4284
63.1020 14.9256 -76.3750
24.8211 47.4295 -75.2859
0.0000 44.6544 -73.5381
61.6658 17.5314 -60.6525
43.5229 24.2626 -38.1875
0.0000 26.5217 -71.9464
9.7511 8.2423 -76.3750
0.0000 36.6952 -59.3474
69.5832 13.6274 -70.2392
0.0000 36.5029 -53.0087
51.7053 0.0000 -61.2838
36.1250 40.3619 -62.0848
20.5527 0.0000 -51.4071
65.5553 4.5839 0.0000
65.4056 12.7475 -76.3750
36.1250 26.8858 -48.4465
0.0000 38.4552 -59.1560
39.4570 1.7366 0.0000
62.8964 12.3125 -20.8357
43.2526 12.3125 -33.7067
0.0000 33.5427 -45.8663
12.7390 1.3977 0.0000
0.0000 43.2595 -72.7320
68.0300 14.3933 -44.6914
54.3219 12.3125 -29.0720
36.1250 36.4827 -53.2801
48.3912 12.3125 -50.3016
69.7775 12.3125 -40.4603
64.4706 12.3125 -23.2517
36.1250 18.7626 -40.4056
0.0000 3.3789 -43.8475
0.0000 13.9740 -11.9058
43.3461 18.2719 -76.3750
0.0000 24.9166 -67.1155
36.1250 44.2262 -74.4659
29.8641 47.3406 -75.0954
54.5943 15.5456 -38.1875
24.5411 12.3125 -13.0785
40.4888 12.3125 -59.0960
0.0000 1.4313 -67.4599
36.1250 21.0097 -30.6862
30.6562 0.0000 -73.2660
67.9422 0.0000 -72.6596
0.0000 14.9713 -37.0568
0.0000 30.7462 -60.4917
0.0000 5.2286 -35.7952
36.1250 12.4661 -30.1317
16.0058 5.3841 -76.3750
36.1250 34.5637 -68.9301
60.0500 12.9748 -38.1875
19.6341 0.0000 -34.1010
13.9913 12.3125 -12.0782
52.0856 12.3125 -36.6955
44.8352 18.2627 -76.3750
25.9946 12.3125 -6.8805
0.0000 18.2920 -16.9040
28.9401 39.4804 -58.2441
0.0000 22.4284 -47.3533
29.0383 34.3685 -47.2849
36.1250 17.7057 -23.9294
42.9767 0.0000 -65.0266
0.0000 13.9876 -60.2693
41.9076 12.3125 -67.1074
59.9527 12.3125 -16.9713
68.4738 13.9707 -38.1875
45.6937 12.3125 -52.8721
55.6954 12.3125 -37.5264
36.1250 36.5510 -71.1050
36.1250 34.2759 -50.9153
72.2254 12.3125 -23.6602
0.0000 35.0824 -49.8945
60.7895 1.9078 0.0000
36.4422 0.0000 -56.8526
21.6140 0.0000 -40.8963
